ply
format ascii 1.0
element vertex 1252
comment vertices
property float x
property float y
property float z
property uchar red
property uchar green
property uchar blue
end_header
0.51774 -0.03144 -1.62985 23 21 16
0.521623 -0.031418 -1.62869 27 24 20
0.522188 -0.031198 -1.61728 41 38 31
0.521017 -0.030878 -1.60072 57 55 47
0.523411 -0.030773 -1.59528 79 76 69
0.527574 -0.030773 -1.59528 47 44 35
0.530735 -0.030715 -1.59228 39 36 28
0.534105 -0.03067 -1.58994 55 52 42
0.537433 -0.030624 -1.58751 63 59 50
0.539519 -0.030507 -1.58149 100 96 86
0.545036 -0.030585 -1.58553 137 133 122
0.549205 -0.030587 -1.58562 113 108 97
0.555423 -0.030702 -1.59158 108 102 92
0.562635 -0.03087 -1.60028 95 88 77
0.561966 -0.030606 -1.5866 68 61 50
0.566107 -0.030606 -1.5866 67 60 51
0.571867 -0.030693 -1.59111 65 59 50
0.575782 -0.03068 -1.59045 69 62 54
0.579695 -0.030668 -1.5898 68 64 54
0.583393 -0.030644 -1.58858 69 65 58
0.58589 -0.030558 -1.58412 69 69 60
0.589823 -0.030548 -1.58358 71 70 66
0.593394 -0.030519 -1.58208 67 67 61
0.597494 -0.030517 -1.58201 36 36 32
0.601622 -0.030517 -1.58201 114 115 110
0.604551 -0.030457 -1.57887 210 211 206
0.608671 -0.030457 -1.57887 205 206 201
0.630684 -0.031346 -1.62497 207 209 204
0.660994 -0.032633 -1.6917 205 206 203
0.691611 -0.033918 -1.75831 207 207 205
-0.270932 -0.041151 -1.87851 110 110 110
-0.26461 -0.040932 -1.86849 108 108 108
-0.258821 -0.040788 -1.86192 105 105 105
-0.252009 -0.040474 -1.8476 124 124 124
-0.245038 -0.040122 -1.83153 147 147 146
-0.23952 -0.039999 -1.8259 147 147 147
-0.233877 -0.039849 -1.81907 161 161 161
-0.226964 -0.039472 -1.80188 161 161 161
-0.222175 -0.039457 -1.80117 161 161 161
-0.217781 -0.039512 -1.8037 161 161 161
-0.213098 -0.039517 -1.80391 162 162 160
-0.208539 -0.039545 -1.80519 163 163 161
-0.204135 -0.039605 -1.80791 163 163 161
-0.199934 -0.039707 -1.81259 166 165 163
-0.195557 -0.039779 -1.81587 165 164 162
-0.191058 -0.039829 -1.81815 165 164 162
-0.186727 -0.039917 -1.82219 165 164 162
-0.182433 -0.040018 -1.8268 163 162 160
-0.178207 -0.04014 -1.83237 162 161 159
-0.174151 -0.040308 -1.84003 161 160 158
-0.169497 -0.040343 -1.84163 162 160 159
-0.165192 -0.040466 -1.84724 163 159 158
-0.160714 -0.040553 -1.85119 161 157 156
-0.156483 -0.040709 -1.85831 160 157 156
-0.151866 -0.040771 -1.86115 159 155 154
-0.148808 -0.04127 -1.88392 141 136 136
-0.143891 -0.04127 -1.88392 144 143 141
-0.14181 -0.042111 -1.92235 163 162 160
-0.134679 -0.04146 -1.89263 161 160 158
-0.129632 -0.041426 -1.89105 160 160 157
-0.124787 -0.041456 -1.89242 161 161 159
-0.119882 -0.041467 -1.89294 161 161 158
-0.114878 -0.041444 -1.89189 157 158 153
-0.109882 -0.041422 -1.89086 155 156 151
-0.104843 -0.04138 -1.88897 152 153 148
-0.099866 -0.041361 -1.88807 155 153 149
-0.094862 -0.041327 -1.88655 155 153 149
-0.089898 -0.041308 -1.88568 153 152 148
-0.084949 -0.041295 -1.88507 151 150 146
-0.080014 -0.041286 -1.88468 150 149 145
-0.07508 -0.041278 -1.88429 150 149 144
-0.070262 -0.041336 -1.88695 150 149 144
-0.065299 -0.041311 -1.88583 151 151 146
-0.060289 -0.04125 -1.88305 151 151 146
-0.055148 -0.041082 -1.87533 153 152 147
-0.050032 -0.0409 -1.86705 153 152 147
-0.045221 -0.040955 -1.86956 153 152 147
-0.040235 -0.040846 -1.86457 155 154 149
-0.035333 -0.040805 -1.86269 156 155 150
-0.030455 -0.040781 -1.86162 156 155 150
-0.025556 -0.040716 -1.85864 158 157 152
-0.020673 -0.04065 -1.85566 160 159 154
-0.015791 -0.040549 -1.85103 159 158 153
-0.010899 -0.040322 -1.84068 159 158 153
-0.006071 -0.040157 -1.83314 160 159 154
-0.001284 -0.040044 -1.82795 162 161 156
0.003476 -0.039921 -1.82237 163 161 156
0.008181 -0.039678 -1.81127 165 161 156
0.012792 -0.039321 -1.79496 165 162 155
0.017161 -0.038614 -1.76268 166 163 155
0.021485 -0.038123 -1.74028 164 161 156
0.026026 -0.038123 -1.74028 164 161 154
0.030403 -0.037918 -1.73093 164 161 154
0.03485 -0.037842 -1.72746 165 162 155
0.039187 -0.037678 -1.71996 167 164 157
0.043866 -0.037842 -1.72746 166 163 156
0.049157 -0.038455 -1.75544 165 162 155
0.054058 -0.038684 -1.7659 165 162 155
0.058743 -0.038735 -1.76821 165 162 155
0.063139 -0.038601 -1.76212 164 161 154
0.067578 -0.038511 -1.75798 164 161 154
0.071454 -0.038131 -1.74063 163 160 153
0.074959 -0.03761 -1.71688 163 160 153
0.078941 -0.037374 -1.7061 163 160 153
0.083393 -0.037374 -1.7061 163 158 152
0.085601 -0.03642 -1.66253 162 159 152
0.096033 -0.033971 -1.55075 49 46 41
0.100078 -0.033971 -1.55073 41 38 33
0.104307 -0.03403 -1.55344 42 41 35
0.108649 -0.034121 -1.55757 49 48 44
0.112483 -0.034051 -1.55439 49 48 44
0.116157 -0.033939 -1.54929 46 44 40
0.120177 -0.033933 -1.54899 45 45 42
0.125326 -0.034235 -1.5628 44 43 40
0.129404 -0.034235 -1.5628 78 77 75
0.125677 -0.032233 -1.47141 65 65 62
0.131801 -0.032802 -1.49736 84 83 81
0.13473 -0.032565 -1.48657 92 91 89
0.140706 -0.031305 -1.42906 22 21 19
0.147348 -0.031937 -1.45788 20 19 17
0.151131 -0.031932 -1.45768 20 19 17
0.154927 -0.031931 -1.45761 22 21 19
0.158676 -0.03192 -1.4571 22 21 17
0.162479 -0.03192 -1.4571 29 28 24
0.167052 -0.032068 -1.46386 38 36 33
0.170977 -0.032087 -1.46476 35 34 32
0.1748 -0.032087 -1.46476 33 32 28
0.177761 -0.031933 -1.4577 31 30 26
0.181208 -0.03187 -1.45483 29 28 24
0.184627 -0.031805 -1.45187 27 26 22
0.18833 -0.031791 -1.45121 28 24 21
0.191881 -0.031752 -1.44943 28 26 20
0.195485 -0.031723 -1.44811 28 25 20
0.198755 -0.031642 -1.44441 30 27 22
0.202524 -0.031642 -1.44441 34 31 26
0.206668 -0.031699 -1.44703 39 33 28
0.209978 -0.031629 -1.44382 39 34 27
0.212535 -0.03145 -1.43565 47 42 36
0.218095 -0.031713 -1.44768 59 55 45
0.221834 -0.031708 -1.44743 53 49 38
0.224191 -0.031508 -1.43832 57 52 40
0.226456 -0.031302 -1.42893 64 58 46
0.222459 -0.030252 -1.38097 70 64 50
0.23301 -0.031181 -1.42341 85 79 66
0.233905 -0.03081 -1.40646 87 81 65
0.235778 -0.030577 -1.39582 86 80 65
0.245124 -0.031306 -1.42907 86 81 66
0.248854 -0.031306 -1.42907 84 79 64
0.255184 -0.031628 -1.44378 82 76 64
0.263212 -0.032148 -1.46754 75 71 60
0.274292 -0.033021 -1.50738 69 66 55
0.276254 -0.032787 -1.4967 41 38 31
0.279109 -0.032664 -1.49109 32 29 21
0.283 -0.032664 -1.49109 31 28 21
0.286805 -0.032654 -1.49065 34 32 24
0.299971 -0.033251 -1.5179 49 48 41
0.304357 -0.033298 -1.52002 50 50 43
0.308324 -0.033298 -1.52002 50 50 38
0.324004 -0.034547 -1.57704 36 34 21
0.329506 -0.034693 -1.5837 35 33 22
0.332297 -0.034553 -1.57733 76 74 59
0.337812 -0.034697 -1.58389 89 86 71
0.343566 -0.034862 -1.5914 57 54 38
0.351213 -0.035212 -1.60739 40 37 19
0.355065 -0.035178 -1.60584 35 31 11
0.358982 -0.035151 -1.60462 48 42 25
0.374337 -0.036232 -1.65396 96 91 60
0.380449 -0.036404 -1.66181 108 104 77
0.376766 -0.035645 -1.62717 62 59 47
0.381012 -0.035645 -1.62717 69 65 58
0.384203 -0.035548 -1.62271 60 55 48
0.387199 -0.035434 -1.61754 41 37 30
0.383567 -0.034723 -1.58509 28 26 19
0.381271 -0.034147 -1.55879 25 23 17
0.377159 -0.033422 -1.5257 25 24 19
0.380978 -0.033408 -1.52505 22 21 17
0.383732 -0.033302 -1.5202 21 20 16
0.385807 -0.033139 -1.51277 23 22 17
0.388314 -0.033017 -1.50718 21 20 16
0.392184 -0.033011 -1.50694 23 23 16
0.398634 -0.033221 -1.51652 37 36 28
0.401147 -0.033102 -1.51108 44 42 35
0.400581 -0.032734 -1.49426 58 57 49
0.40448 -0.032734 -1.49426 71 68 59
0.407306 -0.032648 -1.49033 80 77 68
0.410922 -0.032626 -1.48934 73 71 61
0.413913 -0.032555 -1.48613 60 57 49
0.416014 -0.032417 -1.4798 60 55 47
0.421553 -0.032546 -1.48572 59 54 47
0.426334 -0.032616 -1.48887 56 51 44
0.441459 -0.033468 -1.52777 45 41 35
0.460894 -0.034628 -1.58075 37 32 26
0.465675 -0.034677 -1.58298 24 21 17
0.473136 -0.034923 -1.5942 23 20 15
0.474096 -0.034389 -1.56983 21 18 13
0.48807 -0.0351 -1.60226 22 19 14
0.499263 -0.035599 -1.62508 22 18 15
0.503801 -0.03562 -1.62604 20 17 13
0.508331 -0.035641 -1.62696 20 18 14
0.51205 -0.035604 -1.62529 21 18 13
0.51657 -0.035623 -1.62616 21 18 13
0.520613 -0.035609 -1.62554 23 20 15
0.521758 -0.035399 -1.61595 26 23 17
0.519649 -0.034974 -1.59651 34 31 24
0.523697 -0.034966 -1.59615 69 66 59
0.526781 -0.034894 -1.59288 83 80 71
0.531081 -0.034904 -1.59331 50 48 36
0.533847 -0.034813 -1.58917 48 44 32
0.535698 -0.034664 -1.58239 60 56 44
0.53919 -0.034623 -1.58052 83 76 66
0.544472 -0.034697 -1.58389 123 115 105
0.548943 -0.034718 -1.58486 121 113 103
0.555363 -0.034862 -1.59141 102 94 84
0.562635 -0.035056 -1.60028 89 82 71
0.562198 -0.034771 -1.58726 68 61 51
0.566547 -0.034784 -1.58783 68 60 50
0.571307 -0.034821 -1.58955 66 58 49
0.575467 -0.034822 -1.58958 69 63 54
0.578801 -0.034773 -1.58735 64 60 51
0.582851 -0.034767 -1.5871 66 60 54
0.584452 -0.034617 -1.58023 74 70 63
0.589823 -0.03469 -1.58358 73 71 66
0.594002 -0.034693 -1.5837 71 69 64
0.598135 -0.034693 -1.5837 49 48 43
0.602671 -0.034716 -1.58477 84 84 79
0.604551 -0.034587 -1.57887 196 197 192
0.608199 -0.03456 -1.57765 208 209 204
0.630683 -0.035597 -1.62497 205 205 203
0.660994 -0.037059 -1.6917 208 207 205
0.691611 -0.038518 -1.75831 208 208 206
-0.271334 -0.046134 -1.8813 110 110 110
-0.264619 -0.045821 -1.86855 108 108 108
-0.25943 -0.045766 -1.8663 102 102 102
-0.253198 -0.045521 -1.85632 123 123 122
-0.245382 -0.044976 -1.8341 148 148 151
-0.240094 -0.044882 -1.83028 142 142 141
-0.235317 -0.044882 -1.83028 162 162 162
-0.227093 -0.044211 -1.80289 161 161 161
-0.2223 -0.044193 -1.80218 160 160 161
-0.217947 -0.044265 -1.80508 161 161 161
-0.213333 -0.044285 -1.80589 159 159 157
-0.208741 -0.04431 -1.80694 164 164 162
-0.204382 -0.044388 -1.81009 163 163 161
-0.200062 -0.044477 -1.81376 164 162 160
-0.195744 -0.044572 -1.8176 163 162 160
-0.191256 -0.044631 -1.82004 164 163 161
-0.186922 -0.044731 -1.82409 163 162 160
-0.182592 -0.044836 -1.8284 163 162 160
-0.178415 -0.044986 -1.83451 161 160 158
-0.174239 -0.045145 -1.84096 160 159 157
-0.169497 -0.045161 -1.84164 158 158 155
-0.165208 -0.045303 -1.84742 158 156 155
-0.16082 -0.045425 -1.8524 160 155 154
-0.156549 -0.045589 -1.85909 158 158 156
-0.152288 -0.045767 -1.86633 155 154 152
-0.148759 -0.046183 -1.8833 138 137 135
-0.143844 -0.046183 -1.8833 142 141 139
-0.140761 -0.046792 -1.90813 165 163 161
-0.134713 -0.046423 -1.89311 162 161 159
-0.129716 -0.046403 -1.89228 162 161 159
-0.124863 -0.046434 -1.89356 160 159 157
-0.119921 -0.046434 -1.89356 158 158 155
-0.114878 -0.046393 -1.89189 157 158 153
-0.109908 -0.046379 -1.89131 155 155 150
-0.104843 -0.046322 -1.88897 153 152 148
-0.099876 -0.046305 -1.88827 153 152 148
-0.094878 -0.04627 -1.88686 154 153 149
-0.089905 -0.046245 -1.88584 152 151 147
-0.084973 -0.046239 -1.8856 151 150 146
-0.080028 -0.046225 -1.88503 151 148 144
-0.075085 -0.04621 -1.88442 152 149 144
-0.070282 -0.046286 -1.8875 153 150 145
-0.065315 -0.046256 -1.8863 152 150 145
-0.060235 -0.046136 -1.88138 152 150 145
-0.055245 -0.046068 -1.87862 152 150 145
-0.050256 -0.045989 -1.87541 153 152 147
-0.045274 -0.0459 -1.87175 154 153 148
-0.040261 -0.045754 -1.8658 154 153 148
-0.035328 -0.045671 -1.86243 157 156 151
-0.030445 -0.045636 -1.86099 155 154 149
-0.025557 -0.04558 -1.85873 156 155 150
-0.0207 -0.045565 -1.8581 159 158 153
-0.015799 -0.045416 -1.85203 159 158 153
-0.010925 -0.045245 -1.84505 160 159 154
-0.006082 -0.045036 -1.83655 162 160 155
-0.001285 -0.044894 -1.83073 162 161 156
0.003489 -0.044858 -1.82929 163 161 156
0.008192 -0.044474 -1.81362 166 163 157
0.012808 -0.044073 -1.79727 167 164 159
0.017449 -0.04395 -1.79223 166 163 158
0.022082 -0.043862 -1.78867 169 166 160
0.026164 -0.042902 -1.74951 168 165 157
0.030895 -0.043133 -1.75893 166 163 156
0.03492 -0.042446 -1.73093 165 162 155
0.039358 -0.042361 -1.72746 165 162 155
0.043866 -0.042361 -1.72746 165 162 154
0.049288 -0.043162 -1.76013 165 162 155
0.05409 -0.043329 -1.76694 163 160 153
0.058743 -0.04336 -1.76821 165 162 155
0.063291 -0.043315 -1.76636 163 160 153
0.067313 -0.04294 -1.75108 164 161 154
0.071039 -0.042437 -1.73054 164 161 154
0.074795 -0.04201 -1.71312 162 159 152
0.078984 -0.041861 -1.70705 163 160 153
0.083393 -0.041838 -1.7061 164 158 152
0.086474 -0.041185 -1.67948 161 158 151
0.091268 -0.041371 -1.68708 161 158 150
0.090054 -0.038942 -1.58804 165 162 154
0.094898 -0.037578 -1.53242 61 58 53
0.099222 -0.037702 -1.53746 41 39 34
0.104055 -0.038002 -1.54969 40 40 35
0.108561 -0.038164 -1.55631 49 48 42
0.112586 -0.038152 -1.55581 49 48 43
0.116256 -0.038024 -1.55061 47 45 41
0.120302 -0.038024 -1.55061 44 43 38
0.125229 -0.038294 -1.56159 43 43 41
0.129231 -0.038272 -1.5607 64 63 62
0.131655 -0.036678 -1.49571 79 79 78
0.135558 -0.036678 -1.49571 89 89 87
0.137333 -0.036118 -1.47288 46 46 44
0.139743 -0.035752 -1.45792 21 20 18
0.143141 -0.03565 -1.45379 22 21 19
0.147364 -0.035754 -1.45804 20 19 17
0.150985 -0.035711 -1.45627 19 18 16
0.154782 -0.03571 -1.45624 21 20 18
0.158637 -0.035723 -1.45674 22 21 19
0.162402 -0.035715 -1.45641 24 23 21
0.166319 -0.03574 -1.45743 30 29 27
0.1702 -0.035756 -1.45811 34 33 31
0.173882 -0.035731 -1.45707 34 33 30
0.17709 -0.035611 -1.4522 33 32 28
0.180401 -0.035517 -1.44836 31 30 26
0.183915 -0.035466 -1.44627 28 27 23
0.187632 -0.035455 -1.44583 29 25 22
0.191135 -0.035405 -1.44379 31 28 24
0.194444 -0.035322 -1.44039 29 25 21
0.197983 -0.035283 -1.4388 32 29 24
0.201563 -0.035252 -1.43755 35 30 26
0.205412 -0.035269 -1.43824 39 34 29
0.209499 -0.035325 -1.44053 38 33 27
0.212683 -0.03523 -1.43665 38 34 28
0.215961 -0.035153 -1.43352 49 46 37
0.219236 -0.035079 -1.43048 53 48 38
0.22256 -0.035014 -1.42786 56 50 37
0.226045 -0.034977 -1.42634 61 55 43
0.224876 -0.034232 -1.39597 78 72 58
0.233333 -0.034954 -1.42538 83 76 59
0.237053 -0.034954 -1.42538 81 75 59
0.239469 -0.034764 -1.41767 82 75 60
0.245124 -0.035044 -1.42907 85 79 64
0.247403 -0.03484 -1.42074 88 82 68
0.251111 -0.03484 -1.42074 87 81 68
0.250772 -0.034287 -1.39818 78 76 62
0.275112 -0.037075 -1.51189 68 65 54
0.275119 -0.036552 -1.49056 54 50 40
0.278362 -0.036467 -1.4871 48 44 36
0.282421 -0.03649 -1.48804 41 38 29
0.286474 -0.036512 -1.48892 39 36 27
0.288375 -0.036262 -1.47874 45 42 34
0.293409 -0.036408 -1.48469 47 45 37
0.298553 -0.036564 -1.49104 48 46 38
0.304889 -0.036859 -1.50309 55 52 41
0.321536 -0.038378 -1.56502 55 53 40
0.328185 -0.03868 -1.57735 39 37 25
0.330031 -0.038416 -1.56658 43 40 28
0.335568 -0.038583 -1.57337 68 65 52
0.342647 -0.03892 -1.58714 71 67 55
0.348414 -0.039103 -1.59458 65 61 49
0.359287 -0.039847 -1.62493 31 27 11
0.362801 -0.039767 -1.62169 36 30 16
0.368137 -0.039887 -1.62657 62 55 41
0.377216 -0.040405 -1.64768 98 92 77
0.380805 -0.04033 -1.64461 71 64 52
0.38226 -0.040033 -1.6325 82 76 62
0.363961 -0.037696 -1.53722 82 77 65
0.368574 -0.037758 -1.53973 72 68 56
0.375843 -0.038087 -1.55317 58 54 43
0.377084 -0.037805 -1.54167 44 41 31
0.376678 -0.037366 -1.52376 32 29 21
0.378798 -0.037184 -1.51632 24 25 16
0.381873 -0.037098 -1.51283 22 22 15
0.38579 -0.037095 -1.51271 25 23 17
0.387489 -0.036881 -1.50398 27 24 17
0.391413 -0.036881 -1.50398 43 40 33
0.396811 -0.037018 -1.50958 76 73 66
0.400372 -0.036983 -1.50816 85 82 74
0.402056 -0.036777 -1.49976 82 78 70
0.404507 -0.036645 -1.49436 78 75 63
0.408906 -0.03669 -1.49618 73 69 58
0.411314 -0.036557 -1.49076 66 63 51
0.414969 -0.036536 -1.48992 53 49 38
0.418546 -0.036509 -1.48881 52 48 37
0.421553 -0.036433 -1.48572 66 62 51
0.424646 -0.036366 -1.48298 69 65 54
0.431013 -0.036578 -1.49162 65 60 52
0.433104 -0.036426 -1.48544 64 61 51
0.436526 -0.036388 -1.4839 61 57 51
0.439101 -0.036281 -1.47953 53 50 43
0.489361 -0.040082 -1.6345 40 37 31
0.495031 -0.040196 -1.63915 29 26 22
0.493681 -0.039743 -1.62068 22 19 15
0.498682 -0.039804 -1.62319 23 20 15
0.503753 -0.03987 -1.62589 20 17 13
0.508183 -0.039885 -1.62649 22 18 15
0.511337 -0.0398 -1.62302 23 20 14
0.515105 -0.039764 -1.62155 23 20 15
0.518514 -0.039701 -1.61899 24 21 16
0.520775 -0.039552 -1.6129 23 20 15
0.519644 -0.03915 -1.5965 26 23 16
0.523815 -0.03915 -1.59651 36 33 26
0.527984 -0.03915 -1.59652 76 73 65
0.530473 -0.039027 -1.59149 80 78 66
0.533657 -0.038956 -1.5886 55 51 39
0.535457 -0.038786 -1.58168 53 49 37
0.539191 -0.038758 -1.58052 65 61 49
0.542942 -0.038731 -1.57944 113 109 97
0.546784 -0.038712 -1.57863 129 125 112
0.552688 -0.038837 -1.58374 97 92 80
0.55944 -0.03902 -1.59119 85 82 69
0.563518 -0.039014 -1.59098 69 63 51
0.566756 -0.038952 -1.58842 68 64 53
0.570632 -0.038933 -1.58767 63 60 49
0.574447 -0.038911 -1.58677 69 65 56
0.578547 -0.038908 -1.58666 69 65 56
0.582105 -0.038869 -1.58507 60 57 50
0.584452 -0.038751 -1.58023 73 73 64
0.590866 -0.038902 -1.58638 71 70 66
0.594002 -0.038836 -1.5837 70 69 64
0.598135 -0.038836 -1.5837 56 56 51
0.603403 -0.038909 -1.58669 71 73 68
0.604739 -0.03873 -1.57937 182 183 178
0.60669 -0.038592 -1.57373 213 214 209
0.610796 -0.038592 -1.57373 205 205 204
0.660994 -0.041484 -1.6917 206 208 205
0.690866 -0.043071 -1.75642 208 209 206
-0.270712 -0.050938 -1.87699 110 110 110
-0.2643 -0.050648 -1.8663 108 108 108
-0.259036 -0.050571 -1.86347 105 105 105
-0.253115 -0.050361 -1.85571 115 115 114
-0.245792 -0.049858 -1.83717 150 150 150
-0.239701 -0.049589 -1.82728 138 138 138
-0.234933 -0.049589 -1.82728 162 162 162
-0.229765 -0.049503 -1.82411 160 160 160
-0.222886 -0.049037 -1.80693 161 161 161
-0.218171 -0.049037 -1.80693 162 162 162
-0.213502 -0.049048 -1.80733 161 161 159
-0.208948 -0.049086 -1.80874 163 163 161
-0.204597 -0.049175 -1.812 163 163 161
-0.2003 -0.049281 -1.81592 164 163 161
-0.19591 -0.049368 -1.81915 164 163 161
-0.191428 -0.049437 -1.82168 164 163 161
-0.187082 -0.049545 -1.82565 163 162 160
-0.182692 -0.049647 -1.8294 160 159 157
-0.178514 -0.049813 -1.83553 160 159 157
-0.174027 -0.0499 -1.83872 159 158 156
-0.16957 -0.05 -1.84243 159 157 156
-0.165239 -0.050145 -1.84776 160 157 156
-0.160888 -0.050292 -1.85319 159 154 154
-0.156584 -0.050464 -1.8595 160 156 155
-0.152614 -0.050757 -1.87031 160 156 155
-0.148769 -0.051113 -1.88343 134 133 131
-0.143919 -0.051136 -1.88428 143 142 140
-0.140535 -0.0517 -1.90507 164 163 161
-0.134713 -0.051376 -1.89311 162 160 158
-0.129758 -0.05137 -1.8929 160 159 157
-0.124893 -0.0514 -1.89402 160 159 157
-0.119937 -0.051395 -1.89381 156 155 153
-0.114924 -0.051363 -1.89265 156 155 151
-0.109941 -0.051342 -1.89188 154 152 149
-0.104933 -0.051308 -1.89061 152 151 147
-0.09988 -0.051246 -1.88834 152 151 147
-0.094912 -0.051224 -1.88753 152 151 147
-0.089923 -0.051188 -1.88621 153 152 148
-0.084982 -0.051177 -1.88581 152 151 147
-0.080021 -0.051152 -1.88486 150 150 145
-0.075103 -0.051152 -1.88486 150 149 143
-0.070302 -0.051237 -1.88802 150 149 144
-0.065311 -0.051187 -1.88617 150 149 144
-0.060257 -0.051076 -1.88205 150 149 144
-0.055305 -0.051038 -1.88067 151 150 145
-0.050267 -0.050907 -1.87582 151 150 145
-0.045299 -0.050824 -1.87277 151 150 145
-0.040322 -0.050711 -1.86862 154 153 148
-0.035356 -0.050583 -1.86392 155 154 149
-0.030473 -0.050551 -1.8627 157 156 151
-0.025612 -0.050551 -1.8627 157 156 151
-0.020724 -0.050485 -1.86027 160 159 154
-0.015813 -0.050304 -1.85363 158 157 152
-0.010937 -0.050128 -1.84712 160 159 154
-0.006099 -0.04998 -1.84169 160 159 154
-0.001286 -0.049717 -1.83198 159 158 153
0.00349 -0.049656 -1.82974 162 161 156
0.008206 -0.049304 -1.81677 165 162 157
0.012818 -0.048811 -1.79862 165 162 157
0.017439 -0.04861 -1.79119 165 162 157
0.022074 -0.048523 -1.78799 166 163 158
0.026594 -0.048258 -1.77824 167 164 158
0.031001 -0.047898 -1.76498 166 163 157
0.035543 -0.047813 -1.76182 167 164 158
0.039437 -0.046974 -1.73093 165 162 155
0.04461 -0.047675 -1.75676 166 163 156
0.049289 -0.047768 -1.76016 166 163 156
0.053859 -0.047747 -1.75938 163 160 153
0.058837 -0.048063 -1.77103 163 160 153
0.063242 -0.047899 -1.765 163 160 153
0.06738 -0.047569 -1.75283 163 160 153
0.071386 -0.047193 -1.73898 164 161 154
0.075434 -0.046888 -1.72776 163 160 153
0.079673 -0.04673 -1.72192 163 160 153
0.084166 -0.04673 -1.72192 163 159 153
0.089059 -0.046941 -1.72969 162 159 152
0.093756 -0.047032 -1.73307 161 158 150
0.098865 -0.047313 -1.74342 163 160 151
0.094105 -0.043054 -1.58648 162 159 152
0.094898 -0.041587 -1.53242 81 79 73
0.098897 -0.041587 -1.53242 38 37 32
0.103861 -0.041977 -1.54679 37 36 31
0.108286 -0.042129 -1.55237 44 43 37
0.112328 -0.042125 -1.55224 48 47 43
0.116195 -0.042059 -1.54979 46 45 41
0.120005 -0.041977 -1.54678 45 44 40
0.123601 -0.041828 -1.54129 46 45 42
0.12824 -0.04203 -1.54874 60 61 56
0.127884 -0.040633 -1.49724 69 69 65
0.131838 -0.040647 -1.49778 81 82 78
0.134134 -0.040164 -1.47999 90 91 87
0.136404 -0.039701 -1.46291 43 43 42
0.139743 -0.039565 -1.45792 23 22 20
0.143547 -0.039565 -1.45792 21 21 19
0.147391 -0.039576 -1.45831 20 19 17
0.151035 -0.039534 -1.45675 18 17 15
0.154841 -0.039535 -1.4568 19 18 16
0.158733 -0.039557 -1.45762 21 20 18
0.162193 -0.039474 -1.45454 22 21 19
0.165652 -0.039394 -1.45159 28 27 24
0.169403 -0.039385 -1.45127 31 30 26
0.17319 -0.039385 -1.45127 31 30 27
0.176695 -0.039322 -1.44896 32 31 27
0.180131 -0.039247 -1.44619 30 29 25
0.183558 -0.039173 -1.44346 27 27 23
0.1871 -0.039126 -1.44173 29 25 22
0.190342 -0.039019 -1.4378 31 28 23
0.193634 -0.038927 -1.43439 31 28 23
0.196786 -0.03881 -1.4301 31 28 23
0.200542 -0.038815 -1.43026 36 31 26
0.204601 -0.038877 -1.43255 41 36 30
0.208345 -0.038878 -1.43259 39 34 27
0.211953 -0.038854 -1.43172 42 38 29
0.215404 -0.038803 -1.42982 49 43 33
0.218832 -0.038749 -1.42784 53 46 36
0.225477 -0.037985 -1.3997 81 75 59
0.231422 -0.038366 -1.41371 82 75 59
0.237053 -0.038682 -1.42538 80 73 57
0.239472 -0.038473 -1.41768 83 77 61
0.243171 -0.038473 -1.41768 90 84 67
0.240749 -0.037519 -1.38253 91 85 68
0.244343 -0.037517 -1.38245 91 84 69
0.247721 -0.037482 -1.38117 85 79 59
0.276342 -0.041213 -1.51865 73 66 51
0.280626 -0.041261 -1.52039 84 81 67
0.279659 -0.040545 -1.49403 85 81 67
0.283315 -0.040511 -1.49275 66 62 50
0.287302 -0.040524 -1.49322 47 43 33
0.291199 -0.040524 -1.49322 50 47 36
0.302335 -0.041518 -1.52986 56 52 43
0.306311 -0.041516 -1.52978 57 54 45
0.303755 -0.040639 -1.4975 50 48 36
0.30269 -0.039983 -1.47329 52 50 38
0.305399 -0.039834 -1.46784 56 54 42
0.322764 -0.041578 -1.53208 44 41 29
0.332135 -0.042262 -1.55727 60 57 45
0.336355 -0.042281 -1.558 73 70 57
0.345993 -0.042973 -1.5835 57 54 42
0.363788 -0.04465 -1.64529 42 38 26
0.368081 -0.04465 -1.64529 39 35 23
0.367181 -0.044028 -1.62234 44 38 26
0.371153 -0.043997 -1.6212 63 58 45
0.376005 -0.044069 -1.62389 54 49 37
0.378618 -0.043881 -1.61695 63 57 45
0.365215 -0.041861 -1.54252 74 69 58
0.366122 -0.041508 -1.52949 77 73 62
0.37095 -0.041601 -1.53295 67 63 52
0.373602 -0.041452 -1.52744 58 53 44
0.376566 -0.04134 -1.5233 36 33 23
0.377452 -0.041004 -1.51094 27 25 17
0.38207 -0.041077 -1.51361 24 23 16
0.38579 -0.041052 -1.51271 26 23 16
0.388079 -0.040878 -1.50627 32 29 22
0.392316 -0.04091 -1.50745 59 56 48
0.398374 -0.041129 -1.51553 86 83 73
0.400988 -0.040992 -1.51048 79 75 64
0.402777 -0.040774 -1.50245 83 80 67
0.407245 -0.040829 -1.50447 91 84 72
0.410411 -0.040753 -1.50169 85 79 65
0.41123 -0.040448 -1.49046 68 62 49
0.415052 -0.040442 -1.49021 55 50 38
0.419302 -0.040477 -1.4915 46 43 31
0.422431 -0.040404 -1.48881 50 46 34
0.424711 -0.040252 -1.48321 53 49 38
0.427107 -0.040113 -1.4781 58 54 44
0.430964 -0.040113 -1.4781 62 58 49
0.435221 -0.04015 -1.47946 65 62 52
0.43728 -0.039985 -1.47339 66 63 54
0.440313 -0.039912 -1.47068 63 60 51
0.449772 -0.040417 -1.48929 60 57 49
0.495202 -0.044118 -1.62567 47 44 38
0.501104 -0.044265 -1.63108 38 35 29
0.503204 -0.044076 -1.62411 33 31 25
0.505112 -0.043873 -1.61666 27 24 20
0.508569 -0.043808 -1.61424 26 22 18
0.513425 -0.043863 -1.61627 25 21 17
0.517106 -0.043817 -1.61459 26 22 17
0.519979 -0.043704 -1.61044 24 20 15
0.519985 -0.043355 -1.59754 26 22 16
0.526353 -0.043536 -1.60425 33 30 23
0.52882 -0.043395 -1.59905 50 45 38
0.532247 -0.043335 -1.59681 80 76 66
0.533657 -0.043112 -1.5886 82 78 66
0.535936 -0.042962 -1.58309 61 58 46
0.539349 -0.042905 -1.58098 62 57 46
0.541493 -0.042749 -1.57522 90 83 72
0.54574 -0.042759 -1.57561 119 113 102
0.548073 -0.042621 -1.57052 107 101 91
0.561822 -0.043366 -1.59797 89 84 73
0.563952 -0.04321 -1.59221 68 61 51
0.566589 -0.043094 -1.58795 68 63 52
0.570241 -0.043057 -1.58659 66 62 52
0.574381 -0.043057 -1.58659 67 63 54
0.578346 -0.043044 -1.5861 66 63 54
0.581899 -0.043001 -1.58451 64 60 53
0.585695 -0.042976 -1.58359 69 68 60
0.590489 -0.043024 -1.58537 69 68 63
0.590826 -0.042749 -1.57524 76 75 70
0.594936 -0.042749 -1.57524 62 62 57
0.602892 -0.043024 -1.58535 62 62 58
0.593118 -0.042038 -1.54902 164 165 160
0.600633 -0.042282 -1.55802 214 215 210
0.644542 -0.045068 -1.66068 207 208 203
0.660994 -0.04591 -1.6917 207 207 204
0.691611 -0.047718 -1.75831 208 208 206
-0.270448 -0.055794 -1.87516 110 110 110
-0.264544 -0.055582 -1.86802 107 107 107
-0.258843 -0.055405 -1.86208 106 106 106
-0.253115 -0.055215 -1.85571 111 111 111
-0.246716 -0.054869 -1.84407 151 151 151
-0.240765 -0.054611 -1.83539 135 135 136
-0.235976 -0.054611 -1.83539 161 161 162
-0.229744 -0.05427 -1.82394 162 162 162
-0.223063 -0.053807 -1.80837 161 161 161
-0.218239 -0.053781 -1.8075 161 161 159
-0.213856 -0.053865 -1.81033 161 161 159
-0.209281 -0.053903 -1.81161 162 162 160
-0.204891 -0.053992 -1.81461 162 160 158
-0.200498 -0.054085 -1.81771 162 161 159
-0.196131 -0.054189 -1.8212 162 161 159
-0.191543 -0.054235 -1.82277 161 160 158
-0.187299 -0.054384 -1.82777 161 160 158
-0.182941 -0.054506 -1.83189 161 159 158
-0.178462 -0.054599 -1.83499 159 156 155
-0.174307 -0.054798 -1.84169 159 156 155
-0.169745 -0.054877 -1.84433 157 155 154
-0.165339 -0.055012 -1.84888 159 156 155
-0.160966 -0.055167 -1.85409 158 155 154
-0.156592 -0.055331 -1.8596 158 156 155
-0.152979 -0.055783 -1.87479 154 153 152
-0.149339 -0.056255 -1.89065 133 132 130
-0.144405 -0.056255 -1.89065 145 144 142
-0.140558 -0.056693 -1.90538 162 161 159
-0.134786 -0.056359 -1.89414 161 160 158
-0.129836 -0.056356 -1.89403 160 159 157
-0.124918 -0.056366 -1.8944 157 156 154
-0.119975 -0.056367 -1.89441 156 155 153
-0.114972 -0.056338 -1.89344 154 153 149
-0.109955 -0.056299 -1.89212 154 153 149
-0.104947 -0.056261 -1.89085 153 152 148
-0.099922 -0.05621 -1.88915 151 150 146
-0.094912 -0.056162 -1.88753 151 150 146
-0.089933 -0.056129 -1.88642 150 149 146
-0.08499 -0.056115 -1.88596 149 148 144
-0.080021 -0.056083 -1.88486 151 150 145
-0.075092 -0.056075 -1.8846 150 148 143
-0.070302 -0.056176 -1.88802 150 148 143
-0.065263 -0.05608 -1.88479 150 148 143
-0.060276 -0.056017 -1.88266 152 150 145
-0.055345 -0.055998 -1.88202 152 150 145
-0.050254 -0.055799 -1.87532 151 150 145
-0.045298 -0.055722 -1.87275 151 150 145
-0.040387 -0.055689 -1.87165 154 153 148
-0.035442 -0.055593 -1.86841 155 154 149
-0.030554 -0.055571 -1.86767 156 155 150
-0.025624 -0.05545 -1.8636 156 155 150
-0.020741 -0.055397 -1.86181 159 158 153
-0.015853 -0.055294 -1.85836 160 159 154
-0.010962 -0.055082 -1.85124 158 157 152
-0.006106 -0.054859 -1.84374 159 158 153
-0.001291 -0.054688 -1.83798 161 160 155
0.003494 -0.054499 -1.83165 161 160 155
0.008215 -0.054115 -1.81874 165 161 156
0.012843 -0.053623 -1.80218 165 162 157
0.017441 -0.053301 -1.79137 165 162 157
0.022091 -0.053242 -1.78938 165 162 157
0.026684 -0.05309 -1.78427 165 162 157
0.031166 -0.052795 -1.77438 165 162 156
0.035604 -0.052512 -1.76484 165 162 155
0.040157 -0.052443 -1.76256 165 162 155
0.044751 -0.052437 -1.76233 165 162 155
0.049203 -0.052281 -1.75709 165 162 155
0.053593 -0.052091 -1.75071 164 161 154
0.058407 -0.052311 -1.7581 164 161 154
0.062995 -0.052311 -1.7581 165 162 155
0.067395 -0.052166 -1.75321 163 160 153
0.071891 -0.052108 -1.75127 164 161 154
0.075555 -0.051491 -1.73054 164 161 154
0.079943 -0.051408 -1.72776 162 159 152
0.084451 -0.051408 -1.72776 162 159 152
0.089108 -0.051494 -1.73063 163 160 152
0.089965 -0.047204 -1.58648 162 159 150
0.099608 -0.045924 -1.54344 34 33 28
0.103807 -0.046 -1.546 35 34 29
0.108209 -0.046157 -1.55127 43 42 36
0.112257 -0.046157 -1.55127 49 48 45
0.115935 -0.04601 -1.54633 47 46 42
0.119787 -0.045939 -1.54396 44 43 39
0.123075 -0.045665 -1.53473 44 43 39
0.12835 -0.046121 -1.55007 56 55 51
0.127974 -0.044581 -1.49831 65 64 61
0.135754 -0.043321 -1.45595 39 39 37
0.139554 -0.043321 -1.45595 23 22 20
0.143338 -0.043316 -1.45579 19 19 17
0.14739 -0.043391 -1.4583 17 16 14
0.150988 -0.043331 -1.4563 18 17 15
0.154775 -0.043327 -1.45617 19 18 16
0.158696 -0.04336 -1.45728 19 18 16
0.162214 -0.043285 -1.45473 21 20 18
0.165518 -0.043156 -1.45042 26 25 23
0.169228 -0.043137 -1.44977 29 28 26
0.172778 -0.043079 -1.44782 30 29 27
0.176394 -0.043039 -1.44649 31 30 26
0.179872 -0.042968 -1.44411 30 29 26
0.183054 -0.042831 -1.4395 28 27 24
0.18659 -0.042781 -1.4378 29 25 22
0.189806 -0.04266 -1.43375 29 27 22
0.193013 -0.042542 -1.42979 30 27 23
0.196238 -0.042433 -1.42611 31 28 23
0.199816 -0.042402 -1.42509 36 30 27
0.203761 -0.04245 -1.42667 39 34 28
0.207566 -0.042466 -1.42724 39 34 27
0.211639 -0.042536 -1.42959 43 38 30
0.215056 -0.042475 -1.42751 46 42 31
0.218491 -0.042418 -1.42562 51 47 36
0.222454 -0.041765 -1.40367 64 58 45
0.225328 -0.04162 -1.39878 76 70 53
0.227246 -0.041305 -1.3882 77 70 54
0.229125 -0.040993 -1.37771 78 71 54
0.23272 -0.040993 -1.37771 85 78 62
0.240545 -0.041726 -1.40237 92 85 68
0.241023 -0.041183 -1.3841 98 90 74
0.243 -0.040908 -1.37485 99 90 73
0.246456 -0.040886 -1.37411 90 82 63
0.253965 -0.041527 -1.39568 74 66 47
0.279563 -0.045067 -1.51463 88 79 64
0.281536 -0.044752 -1.50405 98 91 73
0.284633 -0.044622 -1.49969 86 78 64
0.287739 -0.044497 -1.4955 77 70 57
0.29307 -0.044715 -1.50282 77 71 59
0.301559 -0.045403 -1.52594 71 67 54
0.305541 -0.045403 -1.52594 62 58 47
0.308139 -0.0452 -1.51911 50 46 34
0.310906 -0.045027 -1.51328 61 59 47
0.307497 -0.043974 -1.47792 65 63 49
0.316634 -0.04472 -1.50298 64 62 50
0.323636 -0.04515 -1.51742 67 63 50
0.333237 -0.045927 -1.54355 70 66 54
0.34675 -0.047219 -1.58696 65 61 49
0.358149 -0.048196 -1.61979 62 59 46
0.363023 -0.048282 -1.62268 63 58 46
0.364776 -0.047955 -1.61172 54 50 34
0.368675 -0.047915 -1.61038 52 45 31
0.372538 -0.047872 -1.60891 58 51 36
0.375136 -0.047669 -1.60208 89 83 69
0.370238 -0.045524 -1.53 61 57 46
0.372828 -0.045353 -1.52427 45 41 32
0.375338 -0.045177 -1.51833 32 28 19
0.378032 -0.045026 -1.51326 27 25 16
0.382288 -0.045062 -1.51447 23 22 17
0.386754 -0.045122 -1.51649 27 24 16
0.390276 -0.045072 -1.5148 31 28 20
0.394752 -0.045132 -1.51681 55 52 43
0.399525 -0.045224 -1.51991 75 72 60
0.402653 -0.04513 -1.51675 81 78 63
0.404344 -0.044878 -1.50829 94 90 73
0.407935 -0.04484 -1.50702 107 101 86
0.41093 -0.044738 -1.50359 88 82 65
0.412299 -0.044463 -1.49433 74 67 53
0.413613 -0.044186 -1.48505 62 56 43
0.417814 -0.044221 -1.4862 49 43 32
0.421149 -0.044164 -1.48429 49 43 32
0.424312 -0.04409 -1.48181 49 45 33
0.426546 -0.043922 -1.47616 50 46 36
0.429628 -0.043843 -1.47352 61 57 47
0.433496 -0.043846 -1.4736 64 60 50
0.436475 -0.043759 -1.47068 64 60 50
0.439088 -0.043637 -1.46659 60 56 46
0.443714 -0.043716 -1.46923 67 63 54
0.447994 -0.043759 -1.4707 73 69 60
0.452271 -0.043802 -1.47213 76 72 64
0.501493 -0.04816 -1.61859 66 62 53
0.505717 -0.04816 -1.61859 47 42 36
0.510222 -0.048187 -1.61949 33 29 22
0.513856 -0.048131 -1.61762 28 23 17
0.515993 -0.047937 -1.61111 27 22 16
0.519377 -0.047862 -1.60857 26 20 14
0.523658 -0.04787 -1.60883 28 22 17
0.529283 -0.047999 -1.61318 31 25 20
0.533351 -0.047986 -1.61275 45 39 34
0.532993 -0.047578 -1.59905 62 57 48
0.532507 -0.047166 -1.58518 74 70 59
0.532785 -0.046827 -1.57378 72 66 56
0.536892 -0.046827 -1.57378 67 60 49
0.537969 -0.046564 -1.56497 71 64 53
0.54169 -0.046533 -1.56392 91 85 74
0.546133 -0.046564 -1.56496 100 93 82
0.554496 -0.046926 -1.57713 92 85 75
0.560297 -0.047068 -1.58189 68 61 50
0.565232 -0.047135 -1.58415 65 61 49
0.568728 -0.047082 -1.58238 67 62 52
0.572587 -0.04706 -1.58163 65 61 52
0.576796 -0.047067 -1.58185 68 65 56
0.581591 -0.047121 -1.58367 65 62 55
0.584683 -0.047037 -1.58086 67 64 57
0.585189 -0.046748 -1.57114 67 66 59
0.589289 -0.046748 -1.57114 71 71 65
0.593897 -0.046788 -1.57248 65 65 59
0.601246 -0.047042 -1.58102 43 42 38
0.593118 -0.04609 -1.54902 129 131 125
0.600326 -0.046334 -1.55723 217 218 214
0.642837 -0.049282 -1.65629 205 206 201
0.654824 -0.049865 -1.6759 208 209 205
0.692768 -0.052405 -1.76125 207 208 205
-0.270448 -0.060699 -1.87516 109 109 107
-0.26476 -0.060518 -1.86955 107 107 104
-0.259218 -0.060363 -1.86477 105 105 103
-0.253572 -0.060178 -1.85906 112 112 109
-0.247208 -0.059812 -1.84775 148 148 149
-0.240917 -0.05945 -1.83655 135 135 132
-0.236124 -0.05945 -1.83655 160 160 158
-0.228478 -0.058716 -1.81389 159 159 156
-0.223212 -0.058577 -1.80958 160 160 158
-0.218441 -0.058563 -1.80917 160 160 158
-0.213905 -0.058614 -1.81074 159 159 157
-0.209338 -0.058658 -1.81211 162 161 159
-0.204958 -0.058758 -1.8152 160 159 157
-0.2006 -0.05887 -1.81863 161 160 158
-0.196213 -0.058977 -1.82196 161 160 158
-0.191723 -0.059059 -1.82448 160 159 157
-0.187409 -0.0592 -1.82884 159 158 157
-0.182986 -0.059313 -1.83234 158 158 155
-0.178534 -0.059423 -1.83573 157 156 152
-0.174387 -0.059643 -1.84253 155 154 152
-0.16976 -0.059707 -1.84449 155 154 151
-0.165432 -0.059882 -1.84992 156 154 151
-0.161013 -0.060035 -1.85463 158 153 152
-0.156543 -0.060177 -1.85902 155 155 152
-0.151747 -0.060199 -1.8597 160 159 156
-0.149866 -0.061416 -1.89731 134 133 130
-0.144914 -0.061416 -1.89731 143 142 138
-0.140558 -0.061678 -1.90538 155 154 152
-0.13479 -0.061315 -1.89419 160 159 156
-0.129847 -0.061315 -1.89419 158 157 155
-0.124946 -0.061336 -1.89483 158 157 154
-0.11998 -0.061325 -1.89449 155 154 151
-0.114991 -0.061301 -1.89374 153 152 148
-0.10997 -0.061257 -1.89239 154 153 149
-0.104949 -0.061209 -1.8909 153 152 148
-0.099931 -0.061158 -1.88931 150 149 145
-0.094938 -0.061117 -1.88806 151 150 145
-0.089963 -0.061084 -1.88705 150 149 144
-0.084991 -0.06105 -1.886 150 148 142
-0.080031 -0.061021 -1.88509 151 147 142
-0.075096 -0.061008 -1.88469 149 145 140
-0.070246 -0.061067 -1.88652 150 147 142
-0.065279 -0.061026 -1.88525 151 148 143
-0.06029 -0.060955 -1.88307 151 148 143
-0.055402 -0.060985 -1.88397 153 150 145
-0.050265 -0.060718 -1.87574 154 151 146
-0.045298 -0.060621 -1.87275 154 150 145
-0.040365 -0.060552 -1.87061 156 153 148
-0.035379 -0.060374 -1.86512 156 153 148
-0.030522 -0.060394 -1.86572 156 156 151
-0.025626 -0.06033 -1.86375 156 155 150
-0.020747 -0.060284 -1.86232 156 155 150
-0.015855 -0.060164 -1.85862 156 155 150
-0.010965 -0.059944 -1.85184 158 157 152
-0.006109 -0.059712 -1.84465 160 159 154
-0.001291 -0.059505 -1.83825 160 159 154
0.003494 -0.059291 -1.83165 160 159 154
0.008216 -0.058879 -1.81893 163 160 155
0.012853 -0.058381 -1.80353 164 161 155
0.017454 -0.05803 -1.7927 165 162 156
0.022115 -0.057987 -1.79137 165 162 155
0.026686 -0.057762 -1.7844 164 161 155
0.031187 -0.057475 -1.77554 166 163 157
0.035632 -0.057172 -1.7662 166 163 156
0.040172 -0.057075 -1.7632 166 163 155
0.044708 -0.056992 -1.76063 165 162 155
0.049203 -0.056877 -1.75709 164 161 154
0.05378 -0.056869 -1.75682 165 162 155
0.058407 -0.05691 -1.7581 165 162 155
0.062995 -0.05691 -1.7581 164 161 154
0.067395 -0.056752 -1.75321 163 160 153
0.071831 -0.056642 -1.74982 163 160 153
0.075598 -0.05605 -1.73152 163 160 153
0.079943 -0.055928 -1.72776 163 160 153
0.08457 -0.056007 -1.73019 163 159 152
0.089108 -0.056021 -1.73063 163 160 153
0.099822 -0.050069 -1.54676 35 32 27
0.103794 -0.050038 -1.5458 38 35 29
0.108072 -0.050151 -1.5493 40 38 32
0.111949 -0.050077 -1.547 48 47 43
0.115821 -0.050006 -1.54481 46 45 41
0.119572 -0.049889 -1.5412 43 42 38
0.123157 -0.049713 -1.53575 50 49 45
0.12729 -0.049762 -1.53726 49 48 44
0.135401 -0.047007 -1.45216 53 51 49
0.13919 -0.047007 -1.45216 20 19 17
0.142484 -0.046844 -1.44712 18 17 15
0.147448 -0.047224 -1.45887 18 17 15
0.150962 -0.047133 -1.45605 18 17 15
0.154728 -0.047122 -1.45573 18 17 14
0.158575 -0.047137 -1.45617 18 17 15
0.162214 -0.04709 -1.45473 20 19 17
0.165608 -0.046976 -1.45121 23 22 20
0.16901 -0.046869 -1.44791 26 25 23
0.172714 -0.046849 -1.44729 29 28 26
0.17626 -0.046788 -1.44539 30 29 27
0.179624 -0.046682 -1.44212 28 27 24
0.182836 -0.046541 -1.43779 28 26 24
0.186176 -0.046439 -1.43461 31 26 23
0.189432 -0.04632 -1.43093 30 26 23
0.192702 -0.046208 -1.42749 30 26 23
0.196019 -0.046112 -1.42452 32 28 24
0.199531 -0.046065 -1.42306 35 31 27
0.203232 -0.046062 -1.42297 39 34 29
0.206946 -0.046062 -1.42297 40 35 29
0.210743 -0.04608 -1.42354 44 39 33
0.214743 -0.046142 -1.42544 43 41 32
0.218312 -0.04611 -1.42445 50 43 33
0.222985 -0.045546 -1.40703 60 55 40
0.225625 -0.045339 -1.40062 68 61 45
0.225876 -0.044665 -1.37983 72 62 46
0.228503 -0.044476 -1.37397 81 72 54
0.230737 -0.044217 -1.36597 89 79 62
0.239673 -0.045231 -1.39729 94 85 68
0.238948 -0.044418 -1.37219 102 93 76
0.241605 -0.044249 -1.36696 99 92 72
0.246173 -0.044429 -1.37254 94 83 65
0.253965 -0.045178 -1.39568 75 64 45
0.277781 -0.048717 -1.50498 85 75 59
0.281267 -0.04864 -1.50262 95 86 69
0.284771 -0.048569 -1.50042 85 78 60
0.287673 -0.048399 -1.49515 81 74 57
0.292137 -0.048492 -1.49804 70 64 47
0.296047 -0.048492 -1.49804 75 68 54
0.303806 -0.049114 -1.51727 82 79 63
0.306713 -0.048946 -1.51208 53 49 34
0.308381 -0.048588 -1.501 73 69 57
0.308586 -0.04801 -1.48315 60 57 41
0.317458 -0.048778 -1.50689 74 70 55
0.323028 -0.049027 -1.51457 83 80 64
0.337042 -0.050536 -1.56118 89 86 69
0.342134 -0.050687 -1.56584 86 82 66
0.355791 -0.052088 -1.60912 87 82 65
0.35911 -0.05196 -1.60519 88 81 65
0.363299 -0.05196 -1.60519 85 79 63
0.368339 -0.052081 -1.60891 78 72 54
0.365825 -0.051142 -1.57992 74 69 50
0.363447 -0.04969 -1.53505 90 84 71
0.361857 -0.048933 -1.51167 77 72 59
0.36983 -0.049472 -1.52832 50 46 34
0.372954 -0.049358 -1.52479 46 42 30
0.375338 -0.049149 -1.51833 41 37 28
0.37823 -0.04901 -1.51405 32 29 20
0.382587 -0.049062 -1.51566 26 23 16
0.387057 -0.049128 -1.51768 31 28 20
0.390978 -0.049123 -1.51752 29 26 17
0.395327 -0.049171 -1.51902 45 40 30
0.400001 -0.049258 -1.52172 61 56 45
0.40314 -0.049157 -1.51859 79 75 64
0.405011 -0.048904 -1.51078 88 85 73
0.408871 -0.048895 -1.51048 91 85 72
0.411146 -0.048697 -1.50438 81 75 62
0.412486 -0.048394 -1.49501 78 72 59
0.413575 -0.048067 -1.48491 67 61 49
0.416012 -0.047901 -1.4798 54 48 35
0.42042 -0.047964 -1.48172 50 43 32
0.424251 -0.04796 -1.4816 48 40 30
0.42661 -0.047791 -1.47638 52 45 35
0.428616 -0.047586 -1.47005 59 56 44
0.432641 -0.047607 -1.47069 66 62 51
0.435455 -0.047495 -1.46724 66 62 51
0.439004 -0.047465 -1.46631 65 59 47
0.442189 -0.047396 -1.46418 63 56 44
0.447361 -0.04754 -1.46862 60 54 42
0.451708 -0.047594 -1.47029 74 68 56
0.459731 -0.048031 -1.4838 92 86 74
0.506763 -0.052503 -1.62194 84 77 68
0.510846 -0.052487 -1.62146 59 52 43
0.514448 -0.052423 -1.61949 42 36 26
0.516741 -0.052228 -1.61345 35 27 20
0.519302 -0.052062 -1.60834 29 22 14
0.523844 -0.052097 -1.6094 30 23 15
0.529846 -0.052275 -1.61489 33 25 18
0.53406 -0.052275 -1.61489 49 42 35
0.534944 -0.051951 -1.6049 70 63 52
0.532277 -0.051291 -1.5845 76 69 59
0.532079 -0.050876 -1.5717 66 59 49
0.535823 -0.050842 -1.57065 76 70 58
0.53756 -0.05062 -1.56378 73 67 55
0.53996 -0.050463 -1.55893 71 65 53
0.544337 -0.050492 -1.55981 86 80 68
0.549624 -0.050604 -1.56327 98 91 81
0.558612 -0.051052 -1.57713 72 65 55
0.562734 -0.051053 -1.57715 64 57 48
0.56661 -0.051031 -1.57648 70 62 53
0.571894 -0.051136 -1.57971 68 61 51
0.5761 -0.051143 -1.57994 69 65 56
0.580924 -0.051205 -1.58185 62 59 50
0.583668 -0.051084 -1.57811 63 60 50
0.584543 -0.050802 -1.5694 68 65 58
0.588474 -0.050788 -1.56896 69 69 61
0.593897 -0.050902 -1.57248 67 67 60
0.600526 -0.051117 -1.57913 44 43 39
0.601852 -0.05088 -1.57183 108 108 104
0.600326 -0.050408 -1.55723 218 219 213
0.640907 -0.053454 -1.65132 204 205 201
0.654824 -0.054249 -1.6759 208 209 204
0.695534 -0.05724 -1.76829 207 208 202
-0.270804 -0.065691 -1.87763 106 106 104
-0.26506 -0.065482 -1.87166 106 106 104
-0.259837 -0.065397 -1.86923 105 105 103
-0.252753 -0.064831 -1.85305 109 109 106
-0.247645 -0.06476 -1.85102 146 146 146
-0.241556 -0.064424 -1.84142 134 134 131
-0.236334 -0.064311 -1.83818 156 156 153
-0.228587 -0.063492 -1.81476 157 157 155
-0.223504 -0.063393 -1.81195 159 159 157
-0.218703 -0.063372 -1.81134 160 159 157
-0.21411 -0.063412 -1.81248 160 159 157
-0.209418 -0.063423 -1.8128 160 159 157
-0.205117 -0.063556 -1.8166 159 158 156
-0.200672 -0.06365 -1.81929 159 158 156
-0.196332 -0.063782 -1.82307 159 158 156
-0.191869 -0.06388 -1.82587 158 157 155
-0.187425 -0.06399 -1.82899 158 157 155
-0.183014 -0.064117 -1.83262 158 157 155
-0.178657 -0.064269 -1.83699 157 156 153
-0.174482 -0.064498 -1.84353 155 154 151
-0.169808 -0.06455 -1.84502 155 154 150
-0.165455 -0.064731 -1.85018 154 152 148
-0.161251 -0.064983 -1.85737 156 152 149
-0.1566 -0.065064 -1.8597 155 154 150
-0.151946 -0.065149 -1.86213 155 154 150
-0.150143 -0.066503 -1.90082 137 136 132
-0.145084 -0.066457 -1.89953 139 138 134
-0.14023 -0.066506 -1.90092 159 158 154
-0.134867 -0.066308 -1.89527 157 156 151
-0.129921 -0.066308 -1.89527 158 157 152
-0.124968 -0.066305 -1.89516 155 154 151
-0.119983 -0.066283 -1.89453 155 154 151
-0.114991 -0.066255 -1.89374 154 153 149
-0.109993 -0.066221 -1.89277 155 154 150
-0.104989 -0.066181 -1.89162 154 153 149
-0.099957 -0.066117 -1.8898 152 151 146
-0.09496 -0.066071 -1.8885 149 148 142
-0.089984 -0.066036 -1.8875 149 148 143
-0.085015 -0.066002 -1.88652 148 148 142
-0.080058 -0.065975 -1.88573 149 146 141
-0.075347 -0.066159 -1.89099 149 146 141
-0.070246 -0.066002 -1.88652 152 149 144
-0.065323 -0.066002 -1.88651 152 149 144
-0.06045 -0.066057 -1.88809 152 149 143
-0.055458 -0.065979 -1.88587 154 151 146
-0.050227 -0.065575 -1.87431 154 151 146
-0.04526 -0.065465 -1.87117 155 152 147
-0.040365 -0.065446 -1.87061 155 152 147
-0.035404 -0.065299 -1.86642 157 154 149
-0.030572 -0.065382 -1.86879 158 154 149
-0.025647 -0.065257 -1.86522 159 155 150
-0.020765 -0.065214 -1.86399 155 155 150
-0.015855 -0.065026 -1.85862 157 156 151
-0.010976 -0.064853 -1.85366 158 157 152
-0.00612 -0.064651 -1.8479 158 157 152
-0.001291 -0.064335 -1.83886 159 158 153
0.003505 -0.064295 -1.83773 162 160 155
0.008228 -0.063729 -1.82156 164 160 155
0.012855 -0.06311 -1.80386 164 161 153
0.017461 -0.062748 -1.7935 165 162 155
0.022116 -0.062676 -1.79146 164 161 154
0.02667 -0.062393 -1.78335 165 162 155
0.031186 -0.062119 -1.77552 165 162 154
0.035578 -0.0617 -1.76355 165 162 154
0.039893 -0.06126 -1.75097 164 161 154
0.04447 -0.06127 -1.75126 165 162 154
0.049071 -0.061309 -1.75237 164 161 154
0.053634 -0.061298 -1.75205 164 161 154
0.058383 -0.061484 -1.75737 165 162 154
0.062995 -0.061509 -1.7581 163 160 153
0.067506 -0.061439 -1.75609 162 159 152
0.071831 -0.061219 -1.74982 162 159 152
0.075849 -0.06078 -1.73727 163 160 153
0.080117 -0.060579 -1.73152 162 159 152
0.084635 -0.060579 -1.73152 164 161 154
0.08855 -0.060169 -1.71979 162 159 152
0.096625 -0.054589 -1.56031 128 125 120
0.099109 -0.053729 -1.5357 38 35 30
0.103456 -0.053906 -1.54077 39 36 30
0.107398 -0.053866 -1.53963 42 39 34
0.111378 -0.053848 -1.53912 47 44 39
0.115177 -0.053747 -1.53622 46 44 41
0.119186 -0.053747 -1.53622 42 39 35
0.123124 -0.053715 -1.53533 49 49 45
0.127538 -0.053888 -1.54026 44 44 40
0.135401 -0.050805 -1.45216 63 62 60
0.13919 -0.050805 -1.45216 19 17 16
0.143284 -0.050914 -1.45525 19 17 17
0.147459 -0.051044 -1.45898 21 20 17
0.150929 -0.050931 -1.45573 18 17 15
0.154728 -0.050931 -1.45573 16 15 13
0.158513 -0.050926 -1.45561 17 16 14
0.162255 -0.050908 -1.4551 19 18 15
0.165946 -0.050876 -1.45417 21 20 18
0.16901 -0.050657 -1.44791 25 24 22
0.172605 -0.050603 -1.44637 27 26 24
0.176088 -0.050519 -1.44398 28 27 25
0.179364 -0.050381 -1.44003 28 27 25
0.182374 -0.050176 -1.43415 28 27 22
0.185802 -0.050091 -1.43173 29 25 21
0.189099 -0.049975 -1.42841 28 24 21
0.192394 -0.049863 -1.42521 30 26 23
0.195543 -0.049718 -1.42107 32 28 26
0.198189 -0.049453 -1.41349 36 31 27
0.201691 -0.049407 -1.41218 36 31 26
0.205449 -0.049424 -1.41268 37 32 26
0.208682 -0.049317 -1.40962 39 34 27
0.212644 -0.049383 -1.4115 39 36 26
0.216327 -0.049383 -1.4115 42 34 24
0.222403 -0.049098 -1.40336 62 53 40
0.222989 -0.04843 -1.38426 66 58 42
0.225859 -0.048271 -1.37972 70 60 43
0.228075 -0.04798 -1.3714 80 70 53
0.228996 -0.04743 -1.35567 88 79 62
0.232888 -0.047502 -1.35773 94 85 68
0.23669 -0.047554 -1.35922 94 85 68
0.240237 -0.047554 -1.35922 93 81 65
0.243443 -0.047487 -1.35732 95 83 67
0.272314 -0.052357 -1.49651 75 63 46
0.277296 -0.052562 -1.50235 80 69 52
0.281267 -0.052571 -1.50262 96 84 68
0.284566 -0.052456 -1.49934 83 73 59
0.285941 -0.051995 -1.48615 87 79 64
0.289746 -0.051982 -1.48577 66 59 44
0.295099 -0.052243 -1.49324 57 53 39
0.301853 -0.052742 -1.50752 81 78 63
0.304464 -0.052514 -1.501 54 49 37
0.305641 -0.052048 -1.48766 75 74 60
0.310997 -0.052295 -1.49474 67 66 51
0.319075 -0.052989 -1.51457 41 43 29
0.324434 -0.05322 -1.52116 67 68 52
0.333574 -0.054058 -1.54512 95 94 78
0.342134 -0.054783 -1.56584 94 91 75
0.347178 -0.054934 -1.57017 83 80 64
0.351241 -0.054929 -1.57002 73 67 51
0.356909 -0.055172 -1.57696 82 75 60
0.363078 -0.055486 -1.58593 87 81 65
0.350413 -0.052947 -1.51336 74 72 55
0.355769 -0.053157 -1.51936 77 71 57
0.364017 -0.05379 -1.53745 70 66 54
0.36446 -0.053268 -1.52254 58 54 43
0.368433 -0.053268 -1.52254 48 44 32
0.374179 -0.053522 -1.5298 47 44 32
0.378171 -0.053522 -1.5298 44 40 31
0.379692 -0.053176 -1.5199 33 30 21
0.383489 -0.053152 -1.51923 29 26 19
0.388231 -0.053259 -1.52228 31 28 21
0.393581 -0.053446 -1.52763 34 31 25
0.397488 -0.053435 -1.52732 39 36 28
0.401558 -0.053447 -1.52764 55 51 41
0.405122 -0.053391 -1.52605 68 64 52
0.40547 -0.052917 -1.5125 79 76 64
0.408871 -0.052846 -1.51048 87 80 70
0.412459 -0.052801 -1.50919 91 85 73
0.413549 -0.052439 -1.49886 79 73 60
0.411834 -0.051733 -1.47866 67 63 51
0.412776 -0.05137 -1.46829 54 47 37
0.415544 -0.051239 -1.46454 47 41 31
0.422757 -0.051653 -1.47638 43 38 28
0.424921 -0.051448 -1.47054 52 48 37
0.425852 -0.0511 -1.46057 60 57 46
0.428968 -0.051017 -1.45821 66 62 51
0.433256 -0.051074 -1.45983 66 63 52
0.437432 -0.051117 -1.46105 64 59 47
0.441889 -0.051192 -1.46319 67 61 49
0.445905 -0.051214 -1.46384 63 57 44
0.452097 -0.051484 -1.47156 70 64 48
0.459538 -0.051891 -1.48318 94 87 68
0.498016 -0.055766 -1.59394 108 101 83
0.50957 -0.056587 -1.61742 106 99 83
0.513791 -0.056587 -1.61742 77 68 53
0.518394 -0.056629 -1.61861 60 50 39
0.522618 -0.056629 -1.61861 45 35 25
0.525075 -0.056439 -1.61318 29 21 11
0.530868 -0.056608 -1.61801 31 24 13
0.53509 -0.056608 -1.61801 35 28 21
0.536017 -0.056262 -1.60812 61 54 44
0.531253 -0.055329 -1.58145 71 64 53
0.529548 -0.054726 -1.56422 81 73 63
0.533291 -0.054692 -1.56323 85 78 68
0.532198 -0.054165 -1.54818 78 71 60
0.536238 -0.054165 -1.54818 69 63 50
0.542643 -0.054402 -1.55496 83 77 64
0.547888 -0.05452 -1.55833 91 85 73
0.552367 -0.054561 -1.5595 72 65 55
0.562199 -0.055126 -1.57565 65 59 48
0.565731 -0.05507 -1.57404 67 62 51
0.569376 -0.055025 -1.57276 65 61 50
0.573504 -0.055027 -1.57283 67 62 53
0.578596 -0.055121 -1.57552 67 63 54
0.581714 -0.055027 -1.57283 64 61 53
0.584794 -0.054931 -1.57008 61 59 52
0.588474 -0.054892 -1.56896 69 69 62
0.59333 -0.054963 -1.57098 67 66 60
0.597624 -0.054981 -1.5715 46 45 42
0.597993 -0.05464 -1.56175 88 88 85
0.601057 -0.054548 -1.55912 224 225 220
0.640396 -0.057727 -1.65 207 208 203
0.648015 -0.058024 -1.65848 207 208 205
0.695534 -0.061866 -1.76829 206 206 204
-0.270922 -0.070634 -1.87844 108 108 105
-0.265253 -0.07043 -1.87303 104 104 102
-0.260148 -0.070371 -1.87147 107 107 106
-0.252847 -0.069705 -1.85374 107 107 106
-0.248066 -0.069721 -1.85417 141 141 141
-0.242479 -0.069506 -1.84846 132 132 130
-0.237434 -0.069441 -1.84673 155 155 152
-0.229521 -0.068518 -1.82218 156 156 154
-0.223685 -0.068188 -1.81341 156 156 154
-0.21892 -0.068178 -1.81314 157 157 155
-0.214414 -0.06825 -1.81504 158 157 155
-0.209759 -0.068276 -1.81576 160 159 157
-0.205206 -0.068338 -1.81739 159 158 156
-0.200817 -0.068458 -1.8206 158 157 155
-0.196418 -0.068581 -1.82387 158 157 155
